ply
format ascii 1.0
element vertex 95
property float x
property float y
property float z
end_header
1.35572 2.38181 0.790245
1.49331 2.41721 0.73404
1.7997 2.41819 0.739723
2.19222 2.41707 0.727919
2.59965 2.41815 0.739005
2.96085 2.41478 0.709077
3.212 2.4107 0.788797
1.4069 1.44375 1.08742
1.41191 1.80446 1.09266
2.17872 1.92628 1.07209
2.70472 1.94372 1.11853
3.03009 1.93275 1.09635
3.36446 1.91971 1.06365
3.66777 1.86622 1.17036
1.39767 2.25678 1.06257
2.25354 2.11722 1.02927
2.58091 2.09573 1.04494
3.00374 2.20152 1.07988
3.32969 2.20531 0.981001
1.17168 2.40558 1.15003
1.44957 2.40939 1.0057
1.79956 2.41354 1.00396
2.1966 2.41334 1.00826
2.59189 2.41002 0.999764
2.99714 2.40859 0.966753
3.31461 2.40579 0.935974
1.68359 1.17578 1.59861
3.07407 1.1858 1.57376
3.39649 1.19201 1.46519
3.71393 1.18795 1.36407
1.56197 1.4264 1.37625
1.65651 1.41128 1.45562
2.24028 1.56598 1.5544
2.49596 1.57159 1.58066
3.09798 1.40203 1.56807
3.39754 1.40606 1.45582
3.73108 1.4018 1.35233
1.55846 1.7986 1.36651
1.65389 1.80365 1.45857
2.21342 1.82984 1.47868
2.55997 1.84333 1.49022
3.06188 1.85893 1.45465
3.39938 1.8185 1.41564
3.76174 1.79186 1.34486
1.0695 2.39482 1.46467
1.47511 2.31093 1.40196
1.65112 2.19933 1.46218
2.20428 2.14658 1.33841
2.60474 2.20016 1.37404
2.94552 2.23215 1.42318
1.12186 2.40195 1.25855
1.47686 2.4029 1.29191
1.81009 2.40548 1.39856
2.20639 2.40619 1.39835
2.58036 2.40364 1.38086
2.8728 2.40212 1.3264
1.84448 1.12371 1.88357
2.18694 1.13355 1.83957
2.55502 1.16698 1.72579
2.90168 1.18344 1.6324
0.724011 1.56152 1.93488
1.80961 1.40184 1.8268
2.19584 1.39715 1.83867
2.5999 1.39951 1.71466
2.89602 1.40049 1.62926
0.724964 1.80244 1.9325
1.8062 1.80222 1.83778
2.10036 1.79939 1.87511
2.70161 1.7837 1.67918
2.9039 1.80907 1.63408
0.73186 2.22721 1.92588
0.9586 2.38538 1.80088
1.36174 2.38767 1.80251
1.81447 2.22994 1.83378
2.17328 2.25361 1.84171
2.61065 2.29728 1.69953
2.90517 2.18295 1.63325
1.88575 2.40151 1.65858
2.18921 2.40185 1.67273
2.47975 2.40078 1.62884
0.708447 1.01876 2.37698
1.08431 1.07688 2.29963
1.28334 1.0877 2.24515
0.725217 1.42259 2.28161
1.07947 1.40153 2.27447
1.32069 1.39764 2.21122
0.773124 1.79541 2.11013
1.0397 1.80224 2.27228
1.32286 1.80401 2.20488
0.773692 2.19881 2.10828
1.02758 2.25341 2.23577
1.33072 2.24598 2.1778
0.645347 1.05493 2.44984
0.985092 1.12085 2.40449
0.667095 1.23368 2.41803
