ply
format ascii 1.0
element vertex 363
property float x
property float y
property float z
end_header
2.88242 2.40978 0.589915
1.35572 2.38181 0.790245
1.38121 2.41948 0.771946
1.50344 2.417 0.730616
1.69656 2.41813 0.739091
1.90084 2.41825 0.740343
2.10268 2.41765 0.728789
2.2967 2.4164 0.726904
2.49393 2.41781 0.739638
2.71834 2.41854 0.738293
2.89701 2.41675 0.696773
3.08573 2.41164 0.742949
3.212 2.4107 0.788797
2.18137 1.97478 0.988624
2.27814 1.99696 0.933448
2.59319 1.99911 0.976004
2.63919 1.99712 0.984079
3.19531 1.91406 0.999786
3.30882 1.94478 0.977925
3.41223 1.93664 0.981143
2.17871 2.10126 0.979483
2.29237 2.05742 0.940506
2.49431 2.05594 0.949813
2.65667 2.04893 0.966454
3.31719 2.10162 0.982911
3.41811 2.11148 0.966382
1.3489 2.37028 0.911045
1.40975 2.3762 0.96237
2.18115 2.22779 0.991535
2.20429 2.21403 0.995383
3.3205 2.29577 0.981598
3.42819 2.29741 0.958165
1.3784 2.41144 0.840512
1.49605 2.41208 0.902054
1.70092 2.4156 0.894662
1.90109 2.41574 0.893826
2.10074 2.41558 0.897668
2.30078 2.41382 0.898438
2.50527 2.41124 0.905282
2.69625 2.41133 0.904419
2.90184 2.41116 0.901759
3.10903 2.41019 0.894815
3.28873 2.40722 0.905413
3.43774 2.40274 0.958887
1.36297 1.34848 1.0951
1.43687 1.344 1.08815
1.36235 1.49806 1.08738
1.43825 1.49885 1.08406
1.36465 1.69755 1.08971
1.43879 1.70366 1.08807
3.68868 1.73931 1.17701
1.36417 1.90068 1.09442
1.44009 1.89539 1.09732
2.16613 1.91031 1.09878
2.20637 1.95861 1.03503
2.71175 1.93845 1.13183
2.92335 1.9392 1.12125
3.10515 1.92823 1.07896
3.29774 1.90934 1.0974
3.49105 1.90562 1.11516
3.66153 1.90406 1.16838
1.36389 2.10454 1.10076
1.43912 2.10014 1.1026
2.18315 2.09607 1.10323
2.29621 2.07538 1.08082
2.49845 2.06521 1.08497
2.68092 2.07631 1.08031
2.91244 2.1003 1.1143
3.10256 2.10134 1.03926
3.21854 2.10426 1.00452
1.3536 2.32156 1.08189
1.44151 2.31648 1.10555
2.16722 2.33277 1.09229
2.20722 2.25591 1.02743
2.70825 2.28774 1.12853
2.91491 2.30299 1.11614
3.10164 2.30331 1.04332
3.23045 2.31458 1.00887
1.17168 2.40558 1.15003
1.25293 2.40504 1.12729
1.52164 2.40827 1.09221
1.69829 2.41102 1.10707
1.89644 2.41205 1.10786
2.10064 2.41201 1.11162
2.30164 2.41216 1.10608
2.49822 2.40992 1.10021
2.69922 2.40712 1.10156
2.89297 2.40548 1.09453
3.09016 2.40473 1.06019
3.27909 2.40364 1.02827
3.40773 2.40243 1.00337
3.72038 1.18822 1.36146
3.80078 1.19121 1.3171
1.56806 1.32419 1.37437
1.62678 1.32012 1.38422
3.59261 1.34139 1.39729
3.7139 1.28936 1.35909
3.81262 1.33632 1.3183
1.56241 1.50028 1.3704
1.62654 1.49758 1.38081
3.56335 1.50416 1.38899
3.70854 1.50058 1.35631
3.83367 1.51302 1.32319
1.5599 1.6998 1.36564
1.62576 1.70071 1.37671
3.7248 1.69965 1.3768
3.85901 1.69788 1.34043
1.55857 1.89731 1.3648
1.62446 1.89655 1.37501
2.14038 1.87273 1.30904
2.25987 1.98938 1.38607
2.68345 1.86969 1.29574
2.93915 1.9351 1.29685
3.10584 1.90395 1.31171
3.30215 1.90276 1.3054
3.50081 1.90228 1.2908
3.70707 1.8846 1.31422
3.86659 1.86754 1.3284
1.5593 2.10211 1.36574
1.62409 2.10189 1.37877
2.16669 2.06531 1.30123
2.30259 2.03444 1.29984
2.49887 2.03998 1.30908
2.63408 2.05257 1.30333
2.92415 2.10199 1.30154
0.996094 2.39684 1.39453
1.12174 2.39796 1.34711
1.26858 2.39474 1.33415
1.50766 2.33728 1.33477
1.62455 2.30511 1.38004
2.14015 2.38686 1.29547
2.68321 2.37795 1.29495
2.92416 2.30356 1.30299
1.12246 2.40196 1.25784
1.24996 2.40101 1.24956
1.54921 2.40361 1.29374
1.69815 2.40612 1.30187
1.90447 2.40863 1.29215
2.09304 2.40782 1.29163
2.29772 2.40801 1.29329
2.5 2.40623 1.30078
2.70734 2.40344 1.30052
2.87387 2.40227 1.2981
1.68359 1.17578 1.59861
2.99413 1.18953 1.59786
3.07924 1.18556 1.5722
3.29534 1.19243 1.49425
3.50705 1.19156 1.43343
3.62006 1.18409 1.40376
1.54495 1.32176 1.40956
1.66742 1.31119 1.48173
2.99497 1.35322 1.59806
3.10378 1.2984 1.56698
3.29998 1.2992 1.48928
3.49744 1.2932 1.42702
3.60884 1.23989 1.4026
1.54021 1.4702 1.40453
1.66726 1.50009 1.48263
2.15278 1.56743 1.54519
2.2954 1.56506 1.5602
2.49596 1.57159 1.58066
2.9939 1.46285 1.59793
3.10021 1.50193 1.56686
3.3028 1.50019 1.48641
3.48224 1.50926 1.42619
3.62466 1.57633 1.40715
1.53655 1.70816 1.40227
1.66426 1.70048 1.48689
2.1406 1.69755 1.54105
2.29925 1.70141 1.54382
2.503 1.70196 1.57446
2.60087 1.78906 1.59766
2.99609 1.71094 1.59949
3.10143 1.69978 1.56942
3.30247 1.69991 1.50746
3.50131 1.70054 1.44359
3.62205 1.69168 1.40618
1.53724 1.89269 1.40227
1.66312 1.89839 1.48641
2.13143 1.88995 1.48302
2.30299 1.90168 1.47566
2.50358 1.90769 1.49889
2.63565 1.87929 1.5121
2.97719 1.9412 1.47018
3.09316 1.88811 1.52633
3.29734 1.87597 1.4904
3.49535 1.86356 1.4449
3.63124 1.86054 1.40781
1.53795 2.12109 1.40332
1.66178 2.10191 1.48838
2.14273 2.02913 1.44008
2.39453 2.00084 1.40234
2.52966 2.004 1.40593
2.63061 2.02008 1.43807
2.97486 2.1027 1.47745
3.01236 2.09817 1.5696
0.953254 2.39384 1.53156
1.09132 2.39397 1.48561
1.34462 2.39622 1.51532
1.46719 2.36181 1.49984
1.6577 2.3013 1.48979
2.1065 2.38712 1.50407
2.55724 2.39935 1.57682
2.68408 2.38951 1.51392
2.94163 2.33915 1.51104
3.01037 2.31491 1.55876
0.972656 2.4001 1.43359
1.34961 2.40083 1.4248
1.5719 2.40254 1.41631
1.71401 2.40257 1.4911
1.8938 2.40431 1.5068
2.10395 2.40434 1.50557
2.30359 2.40451 1.50573
2.4933 2.40234 1.49251
2.69296 2.40184 1.44857
2.86889 2.40156 1.43022
1.73184 1.16462 1.71026
2.35904 1.14501 1.78738
2.48459 1.16026 1.74536
2.6914 1.17999 1.68789
2.90168 1.18344 1.6324
1.7279 1.30056 1.68365
2.37021 1.29552 1.79089
2.50066 1.30008 1.75003
2.6987 1.30133 1.68608
2.89627 1.29892 1.62856
3.00462 1.2468 1.60144
1.73005 1.49988 1.68823
2.36442 1.49439 1.74633
2.50211 1.4902 1.73214
2.69827 1.50126 1.68987
2.89448 1.50225 1.63029
1.7266 1.6995 1.69378
2.1205 1.7157 1.60476
2.59833 1.70312 1.60432
2.69421 1.69843 1.67966
2.89843 1.69782 1.63346
3.00391 1.66406 1.60035
1.72491 1.89764 1.69883
2.12681 1.80462 1.61328
2.7135 1.88968 1.68069
2.89721 1.89887 1.63784
3.01747 1.93897 1.60347
1.72573 2.09879 1.70083
2.75682 2.07771 1.68557
2.8996 2.10119 1.64506
3.02156 2.10631 1.60931
0.783197 2.3876 1.77463
0.910789 2.38717 1.70823
1.04698 2.38795 1.69087
1.31547 2.39348 1.69339
1.45409 2.3839 1.69801
1.72804 2.32023 1.70292
1.87341 2.39914 1.75428
2.1166 2.39906 1.75955
2.3436 2.3478 1.76896
2.49868 2.3272 1.72735
2.69593 2.31557 1.67326
2.87187 2.2918 1.62736
3.0202 2.23422 1.61555
1.73378 2.40088 1.64162
1.91789 2.40164 1.66217
2.0908 2.4017 1.66898
2.29009 2.40201 1.67613
2.43613 2.40061 1.62383
2.67363 2.40152 1.65111
1.78056 1.12956 1.87737
1.89659 1.1117 1.92708
2.0997 1.12759 1.86563
2.26353 1.13894 1.81713
1.78315 1.30141 1.87546
1.89968 1.3003 1.91926
2.10211 1.30081 1.86655
2.27245 1.30292 1.81953
0.724011 1.56152 1.93488
1.78156 1.50048 1.87783
1.89888 1.50149 1.9247
2.10095 1.50003 1.86956
2.27642 1.48397 1.82041
0.723418 1.70066 1.93275
1.78111 1.69871 1.88727
1.89268 1.70247 1.9322
2.0993 1.69855 1.8768
0.726449 1.90014 1.93225
1.77117 1.88916 1.87299
1.87704 1.89942 1.93415
2.10067 1.89821 1.8813
2.21484 1.99609 1.85394
0.726081 2.09885 1.93375
1.76977 2.10295 1.86064
1.87618 2.10113 1.93965
2.10315 2.09981 1.88396
2.22948 2.12677 1.85398
0.734221 2.32094 1.9261
0.891807 2.38164 1.89948
1.14522 2.38722 1.91666
1.29818 2.38849 1.90761
1.44701 2.38117 1.89879
1.77072 2.32727 1.86732
1.88815 2.31996 1.90949
2.09795 2.31407 1.8613
2.27021 2.29977 1.82047
2.28516 2.40051 1.80078
1.34475 1.13861 2.19841
1.36149 1.33941 2.19414
1.40418 1.35885 2.19341
0.76816 1.55382 2.10488
1.36263 1.50191 2.18451
1.41017 1.498 2.17446
0.769396 1.70113 2.09961
1.36297 1.69475 2.18387
1.41134 1.70219 2.16393
0.772816 1.89845 2.10154
1.3634 1.89579 2.18317
1.41564 1.90688 2.16235
0.77338 2.10101 2.10021
1.36525 2.09596 2.18485
1.41982 2.10611 2.16487
0.770361 2.29579 2.09832
0.857474 2.3774 2.08077
1.13298 2.38395 2.10553
1.32176 2.35812 2.11588
1.43031 2.32518 2.13255
0.703751 0.91142 2.37594
0.995401 0.968962 2.29239
1.09946 0.939395 2.26884
1.26555 0.944537 2.236
0.712814 1.11859 2.37795
0.988908 1.11978 2.33544
1.09336 1.1231 2.30604
1.2888 1.13466 2.24844
1.40234 1.19922 2.24302
0.698934 1.29853 2.36884
0.991932 1.29168 2.29893
1.0965 1.2963 2.27516
1.29924 1.28341 2.22539
1.4058 1.28415 2.21656
0.719549 1.47146 2.33662
0.907156 1.52951 2.27355
1.10063 1.49929 2.27156
1.26604 1.5 2.22832
0.796602 1.68592 2.22704
0.859838 1.7077 2.26537
1.10091 1.70078 2.27526
1.26859 1.70037 2.23129
0.798155 1.89276 2.21307
0.85529 1.89831 2.25816
1.10003 1.89917 2.27639
1.26855 1.90024 2.2322
0.798788 2.09691 2.22507
0.853485 2.10524 2.25913
1.10268 2.10519 2.28105
1.27077 2.10466 2.23664
0.796166 2.30005 2.22613
0.854758 2.30044 2.26585
1.09981 2.31269 2.28059
1.27579 2.30384 2.23754
0.586468 0.967577 2.50409
0.63778 0.955931 2.44265
0.591083 1.04613 2.49494
0.657768 1.10008 2.44392
0.985092 1.12085 2.40449
0.667095 1.23368 2.41803
