ply
format ascii 1.0
element vertex 1312
property float x
property float y
property float z
end_header
2.87596 2.40988 0.5881
2.90746 2.40943 0.596949
1.46573 2.41914 0.688068
1.55526 2.41729 0.684707
1.6394 2.41841 0.6877
1.75003 2.41909 0.690316
1.84725 2.41929 0.691612
1.95143 2.41908 0.686029
2.05201 2.41864 0.687036
2.15979 2.4182 0.6855
2.24941 2.41757 0.685606
2.33584 2.4185 0.686562
2.45047 2.42104 0.69082
2.52452 2.41686 0.686658
2.68692 2.41885 0.699242
2.76159 2.42367 0.678062
2.85159 2.42123 0.652204
2.94736 2.41146 0.654315
3.03054 2.41054 0.684186
1.35572 2.38181 0.790245
1.38121 2.41948 0.771946
1.4481 2.41683 0.747701
1.55208 2.41634 0.747634
1.65287 2.41784 0.750571
1.74986 2.41815 0.752741
1.84833 2.41793 0.748905
1.95194 2.41821 0.753307
2.05093 2.41751 0.74384
2.15018 2.41723 0.746322
2.24934 2.41558 0.748329
2.34859 2.41566 0.746266
2.44686 2.41781 0.748431
2.54756 2.41732 0.752028
2.65708 2.41623 0.753871
2.75089 2.41831 0.751261
2.85024 2.41868 0.749917
2.94922 2.41523 0.75
3.05286 2.41317 0.746572
3.14424 2.41053 0.765234
3.212 2.4107 0.788797
2.2615 2.04108 0.891275
2.33058 2.05814 0.895383
1.29297 2.36337 0.894531
1.35744 2.37481 0.854617
1.3773 2.41171 0.836425
1.44786 2.41222 0.849828
1.55078 2.41455 0.847656
1.6525 2.41607 0.846306
1.75079 2.417 0.843452
1.84927 2.41635 0.846183
1.95069 2.41686 0.842159
2.04932 2.41645 0.8464
2.15234 2.41572 0.847656
2.25 2.41497 0.847656
2.34766 2.41349 0.847656
2.44922 2.41245 0.847656
2.54959 2.41206 0.85055
2.65234 2.41279 0.847656
2.75 2.41336 0.847656
2.84766 2.41363 0.847656
2.94958 2.41276 0.848743
3.05244 2.41249 0.850287
3.15875 2.41076 0.851473
3.24022 2.40941 0.849284
3.33766 2.40663 0.878334
2.18137 1.97478 0.988624
2.26493 1.99613 0.93487
2.31306 1.99915 0.929688
2.59319 1.99911 0.976004
2.63919 1.99712 0.984079
3.19531 1.91406 0.999786
3.25618 1.94565 0.986436
3.3481 1.94412 0.971573
3.41223 1.93664 0.981143
2.17874 2.05175 0.97837
2.2402 2.04616 0.946666
2.35093 2.03795 0.933889
2.44905 2.03941 0.937796
2.54978 2.04628 0.949313
2.65108 2.05006 0.964231
2.70805 2.03753 0.985561
3.26629 2.04998 0.988953
3.34908 2.05215 0.978116
3.4143 2.05448 0.967242
2.17868 2.15039 0.980587
2.24125 2.12444 0.98339
2.34976 2.11089 0.971304
2.44644 2.11063 0.97145
2.5391 2.10648 0.983665
2.60547 2.10078 0.996094
3.26794 2.1509 0.98913
3.34847 2.15257 0.979964
3.42087 2.15286 0.965757
2.18115 2.22779 0.991535
2.20429 2.21403 0.995383
3.27056 2.2493 0.990039
3.34877 2.24946 0.982441
3.42899 2.25142 0.964788
1.28937 2.3764 0.957237
1.35184 2.36548 0.951065
1.40975 2.3762 0.96237
3.26325 2.33485 0.989632
3.35022 2.34092 0.972468
3.42747 2.33799 0.952321
1.39538 2.40732 0.903855
1.45069 2.40968 0.948153
1.54987 2.41255 0.950306
1.65234 2.41401 0.949219
1.75 2.41518 0.949219
1.84766 2.41488 0.949219
1.94922 2.41465 0.949219
2.05078 2.41528 0.949219
2.15234 2.41484 0.949219
2.25 2.41393 0.949219
2.34766 2.41298 0.949219
2.45313 2.41117 0.946768
2.54609 2.41002 0.948296
2.65243 2.41005 0.94924
2.74805 2.40987 0.9479
2.84743 2.40937 0.945907
2.95036 2.40967 0.943437
3.05079 2.40926 0.942535
3.15177 2.40844 0.941712
3.24971 2.40723 0.948823
3.35282 2.40496 0.947891
3.43581 2.40272 0.958584
3.50925 2.40328 0.970065
1.43719 1.29313 1.09023
1.37333 1.35029 1.08643
1.43335 1.34781 1.07463
1.36904 1.44811 1.07989
1.4349 1.44766 1.07035
1.36974 1.55112 1.08026
1.43483 1.55156 1.07218
1.37008 1.65137 1.08302
1.43392 1.65341 1.07413
1.37022 1.75127 1.08554
1.43396 1.75007 1.0746
1.3723 1.84751 1.08574
1.43352 1.84652 1.076
2.16767 1.89507 1.08858
1.37312 1.94791 1.08744
1.43383 1.94941 1.07912
2.17177 1.93434 1.0475
2.20646 1.95919 1.03402
2.69484 1.97143 1.08373
2.72487 1.97156 1.0853
2.88663 1.95446 1.09696
2.95111 1.94766 1.08091
3.05218 1.94086 1.05584
3.15347 1.93647 1.03303
3.24561 1.91724 1.04433
3.34657 1.90774 1.04968
3.44862 1.90733 1.0518
3.53633 1.90652 1.07529
3.60547 1.90793 1.09766
1.37371 2.04782 1.09091
1.43163 2.05045 1.08165
2.1797 2.06004 1.03833
2.25153 2.03512 1.04687
2.34717 2.03329 1.04798
2.45025 2.03222 1.05016
2.55079 2.02313 1.05004
2.65372 2.02965 1.04373
2.72671 2.03508 1.07035
2.88773 2.05134 1.09733
2.94837 2.04998 1.08418
3.05088 2.05012 1.05496
3.15327 2.05251 1.02378
3.21807 2.05114 1.00442
1.37571 2.15407 1.09324
1.43147 2.1524 1.08462
2.17787 2.1431 1.03013
2.24636 2.13071 1.03861
2.34565 2.13358 1.04585
2.44594 2.13322 1.04443
2.55078 2.12201 1.03758
2.6624 2.13313 1.05823
2.72605 2.15466 1.07625
2.88801 2.15241 1.09724
2.9484 2.15226 1.08444
3.05191 2.15235 1.05461
3.1529 2.15161 1.02409
3.21899 2.15586 1.00462
1.377 2.25091 1.09427
1.43231 2.24963 1.0855
2.17378 2.2643 1.02252
2.20766 2.25148 1.02472
2.69514 2.23935 1.08773
2.72449 2.23504 1.08516
2.89036 2.24958 1.09769
2.95078 2.24903 1.08511
3.05168 2.25001 1.05622
3.15307 2.24991 1.02565
3.22087 2.25178 1.00598
1.29374 2.38984 1.02725
1.35143 2.35911 1.05891
1.43008 2.35537 1.06565
2.17243 2.33078 1.06815
2.20243 2.30469 1.05729
2.89285 2.32741 1.09818
2.95349 2.34011 1.08458
3.04999 2.3473 1.06086
3.15175 2.34578 1.0294
3.23165 2.3578 1.01142
3.31065 2.3808 1.00456
1.1913 2.40862 1.0805
1.24128 2.40886 1.06408
1.46493 2.40788 1.04545
1.55137 2.41017 1.0514
1.64951 2.41166 1.05387
1.75 2.41302 1.05078
1.84766 2.41339 1.05078
1.94922 2.41305 1.05078
2.05078 2.41332 1.05078
2.15234 2.41381 1.05078
2.25 2.41321 1.05078
2.34766 2.41256 1.05078
2.45325 2.41116 1.0542
2.5445 2.40948 1.0471
2.65234 2.40825 1.05078
2.75 2.40757 1.05078
2.84766 2.40667 1.05078
2.94922 2.40637 1.05078
3.05078 2.4057 1.05078
3.14914 2.40426 1.04843
3.24562 2.40391 1.03373
3.33714 2.40318 1.01881
3.40773 2.40243 1.00337
1.44142 1.29038 1.13208
1.33801 1.3441 1.11599
1.44711 1.34523 1.12291
1.33843 1.44573 1.11201
1.44846 1.44865 1.12284
1.33987 1.54905 1.1109
1.44871 1.55055 1.12371
1.34064 1.64363 1.11093
1.4502 1.6509 1.12145
3.6962 1.69741 1.18359
3.70703 1.69507 1.19141
1.33932 1.75328 1.11811
1.45117 1.7567 1.12222
3.68578 1.74497 1.17438
3.71024 1.70782 1.197
1.34115 1.8542 1.11524
1.45033 1.84505 1.127
2.15791 1.88127 1.1582
2.68703 1.89114 1.18345
2.71211 1.89341 1.18438
3.71094 1.80681 1.17771
1.34227 1.94759 1.11457
1.44984 1.94909 1.1296
2.16824 1.90909 1.12774
2.20054 1.91797 1.10547
2.69158 1.92547 1.14505
2.72641 1.94005 1.13663
2.88332 1.9485 1.14739
2.94894 1.90812 1.15204
3.05078 1.90734 1.15234
3.15234 1.90662 1.15234
3.25 1.90612 1.15234
3.34766 1.9055 1.15234
3.44868 1.90469 1.15343
3.55032 1.90455 1.15369
3.64608 1.90491 1.16376
3.72415 1.90511 1.18864
1.34414 2.04844 1.1135
1.45036 2.05138 1.13037
2.18606 2.07802 1.15458
2.24624 2.05472 1.15007
2.34906 2.05506 1.15077
2.44933 2.05563 1.1516
2.55176 2.04851 1.14954
2.6383 2.04695 1.1544
2.72882 2.01792 1.10731
2.882 2.04994 1.14879
1.34297 2.1511 1.11951
1.45001 2.15361 1.13207
2.1868 2.1203 1.15755
2.23446 2.14102 1.12324
2.33194 2.1513 1.13055
2.44048 2.15373 1.13194
2.54477 2.14453 1.12834
2.60547 2.14453 1.16386
2.7169 2.18107 1.10411
2.88033 2.15141 1.14757
1.34506 2.24908 1.11761
1.44983 2.25082 1.13517
2.69433 2.27679 1.11733
2.72398 2.26317 1.11638
2.87947 2.24983 1.14646
1.34202 2.34693 1.11697
1.4568 2.35508 1.15024
2.15968 2.37275 1.14936
2.68853 2.33388 1.16475
2.71694 2.32907 1.1583
2.88184 2.344 1.14492
2.93005 2.38438 1.12651
3.01432 2.38351 1.10547
1.16847 2.40509 1.16142
1.25198 2.40323 1.15583
1.30556 2.40303 1.17001
1.47761 2.40554 1.14804
1.55078 2.40755 1.15234
1.65375 2.40949 1.14868
1.74725 2.41046 1.15604
1.84606 2.41088 1.15858
1.95002 2.41121 1.15563
2.04943 2.41065 1.15856
2.15304 2.41096 1.15923
2.24894 2.41181 1.15562
2.34945 2.41124 1.15659
2.45253 2.41022 1.15072
2.54935 2.40871 1.15151
2.65234 2.40686 1.15234
2.75 2.40574 1.15234
2.84852 2.40473 1.15207
2.94765 2.40339 1.14063
3.04285 2.40328 1.11826
3.83351 1.54513 1.29457
2.14393 1.8622 1.24908
2.6793 1.87697 1.25553
2.71643 1.8829 1.24647
3.6875 1.89986 1.24609
3.77266 1.89956 1.26016
3.80469 1.89902 1.25
2.69134 1.90582 1.22131
2.73314 1.90365 1.21379
2.89886 1.95312 1.20703
2.93104 1.93233 1.25024
3.05078 1.90545 1.25
3.15234 1.90495 1.25
3.25 1.90443 1.25
3.35173 1.90316 1.2561
3.44934 1.9026 1.25577
3.54928 1.90245 1.25049
3.6509 1.90243 1.24907
3.7466 1.90266 1.25182
3.82205 1.90342 1.26392
2.17362 2.06546 1.25501
2.24989 2.04656 1.25275
2.34857 2.05182 1.25164
2.44964 2.05585 1.25067
2.54949 2.05385 1.25265
2.63788 2.05915 1.25073
2.89875 2.05946 1.2092
2.91157 2.04994 1.25349
2.17504 2.11939 1.24498
2.89689 2.15847 1.20931
2.91079 2.15188 1.25799
2.89641 2.2519 1.20929
2.90999 2.24905 1.25781
1.05859 2.3999 1.29297
1.17458 2.39958 1.28245
1.23145 2.39958 1.2832
1.46163 2.36456 1.25096
1.50342 2.37792 1.29024
2.14856 2.38565 1.24732
2.68072 2.37387 1.25014
2.71142 2.37026 1.24779
2.89642 2.33282 1.2111
2.91387 2.34899 1.25721
1.08326 2.40248 1.27007
1.14794 2.402 1.24116
1.24638 2.40092 1.24107
1.30078 2.4014 1.21094
1.49055 2.40333 1.2315
1.54989 2.40474 1.25065
1.65234 2.40659 1.25
1.75 2.40815 1.25
1.85126 2.40911 1.24686
1.95129 2.40999 1.24625
2.04548 2.40962 1.2459
2.15422 2.40709 1.2439
2.25084 2.40924 1.24249
2.34456 2.40876 1.24596
2.44922 2.40784 1.25
2.55078 2.40681 1.25
2.65388 2.40475 1.25072
2.74903 2.40298 1.25693
2.8505 2.40264 1.25147
2.92342 2.40243 1.25401
3.67115 1.18807 1.38555
3.74606 1.1883 1.34889
3.80078 1.19121 1.3171
1.56937 1.27272 1.37349
1.62605 1.26915 1.38377
3.59777 1.2754 1.39641
3.65945 1.24703 1.38403
3.74991 1.24461 1.34284
3.8073 1.28302 1.31599
1.56746 1.34804 1.37478
1.6272 1.34958 1.38449
3.59132 1.35789 1.3975
3.6523 1.34993 1.38044
3.75517 1.34745 1.34508
3.81358 1.3459 1.31871
1.56345 1.44914 1.37219
1.62842 1.45057 1.3829
3.58086 1.45486 1.39375
3.65211 1.44965 1.37395
3.75394 1.44907 1.34374
3.82589 1.44895 1.31893
1.56135 1.55221 1.3686
1.62449 1.54918 1.37852
3.49609 1.52474 1.39896
3.55451 1.53181 1.38613
3.65835 1.54405 1.36839
3.75062 1.54972 1.3445
3.83839 1.56095 1.32832
3.90235 1.57983 1.32822
1.56054 1.65287 1.36561
1.62582 1.65194 1.37756
3.67614 1.65501 1.3914
3.75358 1.65013 1.37115
3.84972 1.65226 1.34411
3.91063 1.66199 1.3294
1.55922 1.74895 1.36568
1.6257 1.75075 1.37585
3.67034 1.74787 1.39039
3.75266 1.7503 1.36683
3.85109 1.75098 1.34059
3.9064 1.74008 1.32762
1.55689 1.8477 1.36554
1.62394 1.84729 1.37416
2.09779 1.84317 1.39302
2.12723 1.84732 1.34552
2.66974 1.85541 1.34941
2.70838 1.86455 1.32943
3.39453 1.89992 1.39453
3.4362 1.89992 1.36328
3.56055 1.89975 1.33594
3.67834 1.84774 1.39035
3.75152 1.84793 1.37113
3.84915 1.84917 1.34318
3.91999 1.85474 1.32321
1.56033 1.94952 1.36403
1.62502 1.94889 1.37592
2.17337 1.98761 1.38362
2.24735 1.98807 1.38466
2.31997 1.99571 1.39285
2.94855 1.93711 1.34555
3.05122 1.90342 1.35377
3.15446 1.90281 1.35508
3.24794 1.90236 1.34817
3.34528 1.90176 1.34042
3.44959 1.90133 1.34434
3.54915 1.90263 1.34949
3.65432 1.90443 1.3421
3.74697 1.90623 1.34236
3.84088 1.90884 1.33722
3.93845 1.90847 1.3266
1.55998 2.05098 1.3655
1.62443 2.05038 1.37856
2.1596 2.04582 1.34667
2.24911 2.01897 1.33567
2.34958 2.02315 1.34721
2.44845 2.02761 1.35114
2.55129 2.03053 1.35113
2.63076 2.04684 1.34916
2.93826 2.05042 1.34804
1.55862 2.15277 1.36597
1.62376 2.15134 1.37898
2.16762 2.10875 1.32486
2.93664 2.15232 1.34868
1.56065 2.25037 1.36517
1.62459 2.25038 1.37894
2.93541 2.24989 1.34879
0.996094 2.39684 1.39453
1.06108 2.39784 1.36116
1.15296 2.39776 1.3485
1.22439 2.39854 1.33761
1.38505 2.38382 1.35475
1.44769 2.35726 1.34577
1.54644 2.35635 1.35991
1.62453 2.34897 1.38093
2.09861 2.39453 1.39249
2.13185 2.38802 1.34588
2.67079 2.38226 1.35191
2.70855 2.3907 1.34021
2.93886 2.35394 1.35191
1.0546 2.40106 1.32088
1.11849 2.40023 1.30078
1.24489 2.40206 1.33863
1.36068 2.40146 1.38151
1.55718 2.40265 1.34133
1.65065 2.40406 1.34944
1.75 2.4061 1.34766
1.84766 2.40699 1.34766
1.94922 2.40786 1.34766
2.05161 2.40746 1.34845
2.16382 2.40609 1.34473
2.24912 2.40782 1.34765
2.34766 2.40604 1.34766
2.44922 2.40562 1.34766
2.55078 2.40482 1.34766
2.63593 2.40332 1.34776
2.75936 2.40291 1.35809
2.84672 2.40222 1.348
2.93334 2.40134 1.33248
3.29279 1.19293 1.48171
3.35105 1.19313 1.46189
3.45291 1.19169 1.44784
3.55268 1.19145 1.42128
3.62006 1.18409 1.40376
1.54531 1.27463 1.41456
1.65513 1.26095 1.46822
3.29373 1.25352 1.4812
3.3482 1.24911 1.46272
3.45245 1.24612 1.44281
3.55111 1.24802 1.4158
3.60884 1.23989 1.4026
1.54471 1.35318 1.40622
1.65484 1.34765 1.45886
3.28857 1.34895 1.47806
3.34789 1.34801 1.45643
3.44962 1.34826 1.43533
3.54382 1.34672 1.41102
1.54085 1.4389 1.40553
1.65662 1.44863 1.46356
3.28624 1.44781 1.47567
3.34971 1.44915 1.45458
3.44916 1.45181 1.4312
3.53174 1.44814 1.4081
1.53879 1.53906 1.40234
1.6549 1.5511 1.46538
3.28753 1.53175 1.47828
3.35341 1.5497 1.46264
3.45022 1.55087 1.43296
3.54851 1.57119 1.42265
3.62466 1.57633 1.40715
1.53812 1.66641 1.40234
1.65009 1.65299 1.46539
3.36204 1.6539 1.48855
3.44855 1.65325 1.46058
3.54921 1.65284 1.42854
3.62414 1.64856 1.40636
1.53568 1.73136 1.40223
1.64921 1.74951 1.46422
3.36211 1.75036 1.48849
3.45075 1.75076 1.45987
3.55038 1.75003 1.42741
3.61909 1.7526 1.40591
1.53697 1.85894 1.40221
1.64651 1.84757 1.46086
2.09197 1.8583 1.45857
2.14142 1.86139 1.46247
2.24471 1.87736 1.48763
2.32214 1.8907 1.4951
2.65528 1.84197 1.44974
2.70146 1.85547 1.40234
3.17578 1.9 1.44922
3.36938 1.84562 1.4911
3.45037 1.8479 1.46498
3.55057 1.84835 1.43235
3.62998 1.85024 1.40762
1.53755 1.93066 1.40234
1.64747 1.94914 1.46255
2.15206 1.94725 1.44662
2.25042 1.94006 1.43892
2.34846 1.94998 1.44977
2.44813 1.95694 1.45536
2.55025 1.96355 1.46001
2.61553 1.98054 1.47294
2.97197 1.93924 1.44905
3.04922 1.90165 1.44532
3.1507 1.90145 1.44863
3.24987 1.90282 1.45018
3.35131 1.90567 1.44746
3.44592 1.9069 1.43815
3.54414 1.90832 1.42882
3.63702 1.90808 1.4087
1.53751 2.0638 1.40495
1.64582 2.05004 1.46275
2.1427 2.02997 1.4378
2.39453 2.00084 1.40234
2.45857 2.00237 1.40227
2.55651 2.00461 1.40732
2.63058 2.02021 1.43753
2.9675 2.05021 1.45104
1.53821 2.15547 1.40234
1.64432 2.15205 1.46696
2.96638 2.15197 1.45111
1.53874 2.2606 1.40234
1.64209 2.2499 1.46578
2.9636 2.25023 1.44966
0.977201 2.3964 1.46625
1.05389 2.39469 1.45193
1.14485 2.3949 1.45093
1.20784 2.39489 1.41327
1.36298 2.39694 1.45559
1.44978 2.3626 1.45083
1.5196 2.34865 1.44521
1.63856 2.34586 1.45894
2.09207 2.3889 1.45686
2.12573 2.38724 1.44583
2.66114 2.38486 1.44902
2.76332 2.3993 1.47994
2.83755 2.399 1.47564
2.95936 2.36495 1.44983
3.00281 2.39253 1.47956
0.972656 2.4001 1.43359
1.34961 2.40083 1.4248
1.5719 2.40254 1.41631
1.65984 2.40245 1.45244
1.74789 2.40381 1.45176
1.84766 2.40508 1.44922
1.94922 2.40626 1.44922
2.04881 2.4057 1.44851
2.16949 2.40467 1.45061
2.25 2.40622 1.44922
2.34766 2.40414 1.44922
2.45036 2.40326 1.45526
2.55163 2.40266 1.4538
2.62977 2.4022 1.44523
2.7428 2.40164 1.43234
2.85235 2.4017 1.42779
2.94633 2.40106 1.4283
1.68359 1.17578 1.59861
2.99413 1.18953 1.59786
3.05247 1.1838 1.58106
3.14169 1.18965 1.55154
3.25101 1.19139 1.52262
3.30206 1.19666 1.5097
1.69378 1.25588 1.52829
2.99609 1.2022 1.59766
3.05206 1.24955 1.58334
3.15321 1.24861 1.55439
3.25172 1.24833 1.52683
3.30142 1.24517 1.51011
1.69705 1.34624 1.52252
2.99493 1.35926 1.59808
3.05036 1.34708 1.5815
3.15377 1.34657 1.55038
3.25206 1.34765 1.52074
1.69624 1.44774 1.5241
2.9936 1.45191 1.59786
3.05122 1.44943 1.5797
3.15284 1.44871 1.5492
3.25284 1.44897 1.51863
1.69387 1.55236 1.5287
2.15278 1.56743 1.54519
2.24875 1.56342 1.55418
2.34636 1.56685 1.56678
2.44814 1.56951 1.57676
2.54895 1.57389 1.58499
2.99537 1.51751 1.59829
3.04827 1.55105 1.58409
3.152 1.55176 1.55317
3.25192 1.54981 1.52234
3.3122 1.57979 1.50489
1.69278 1.65501 1.52989
2.1399 1.65281 1.54105
2.25038 1.653 1.53461
2.34672 1.65131 1.55457
2.44849 1.6536 1.56846
2.5526 1.65035 1.5829
2.99609 1.69922 1.59977
3.0502 1.65268 1.58484
3.15203 1.65176 1.5544
3.25127 1.65318 1.5238
3.31259 1.65109 1.50432
1.6922 1.75023 1.52918
2.14143 1.7512 1.54104
2.24907 1.75093 1.53326
2.34603 1.75165 1.55183
2.44794 1.75066 1.56508
2.55352 1.75327 1.58009
2.60087 1.78906 1.59766
2.99609 1.71484 1.59939
3.04949 1.74829 1.58473
3.15294 1.7515 1.554
3.2508 1.74937 1.52382
3.31117 1.74781 1.50456
1.69148 1.84833 1.52926
2.08508 1.88014 1.5179
2.13531 1.82885 1.53147
2.25484 1.8288 1.51303
2.35023 1.84641 1.52313
2.45067 1.85053 1.53355
2.55432 1.84955 1.54882
2.63335 1.85713 1.5551
3.05649 1.84774 1.58595
3.15272 1.84683 1.55781
3.24904 1.84873 1.52889
3.31918 1.84972 1.50712
1.69178 1.94969 1.53092
2.08471 1.91212 1.54135
2.12446 1.9326 1.52869
2.39453 1.90234 1.5004
2.45557 1.9046 1.50429
2.56192 1.91252 1.51201
2.61914 1.93708 1.53784
2.99059 1.94625 1.52445
3.03999 1.92343 1.55626
3.14871 1.90827 1.53995
3.24315 1.91088 1.5279
3.32239 1.91021 1.50818
1.6907 2.05144 1.52829
2.14361 2.00455 1.50735
2.63419 2.00391 1.50391
2.9903 2.05014 1.52752
3.01175 2.04592 1.56835
1.68898 2.15321 1.52744
2.98984 2.15281 1.52836
3.01299 2.15149 1.57087
1.68561 2.25015 1.52932
2.97232 2.25748 1.54987
3.01252 2.23452 1.57387
0.887746 2.39393 1.58925
0.950231 2.3929 1.55041
1.05133 2.39238 1.54988
1.12891 2.39274 1.54096
1.28646 2.39667 1.57769
1.34755 2.3958 1.55386
1.45086 2.37254 1.55157
1.51339 2.34689 1.54279
1.67913 2.35375 1.52671
1.73047 2.39998 1.59766
2.08412 2.38563 1.55422
2.1162 2.38756 1.54788
2.48047 2.39959 1.59375
2.56455 2.39933 1.57521
2.64575 2.38628 1.55252
2.75 2.39778 1.55078
2.84991 2.39613 1.55564
2.96022 2.36682 1.55764
3.0092 2.37818 1.55299
1.68237 2.40175 1.54948
1.75233 2.40194 1.54512
1.84601 2.4027 1.55598
1.94817 2.40382 1.55228
2.04067 2.40396 1.55078
2.16284 2.40315 1.55869
2.2481 2.40547 1.55294
2.35019 2.40283 1.55471
2.44531 2.40184 1.54598
2.54238 2.40094 1.53594
2.66949 2.40154 1.53691
2.89453 2.40009 1.50391
2.90625 2.40057 1.50781
1.69132 1.18756 1.60654
1.71508 1.18704 1.6268
2.65995 1.17705 1.69382
2.74887 1.18197 1.67498
2.85244 1.18507 1.64765
2.94718 1.18193 1.61832
1.69069 1.24498 1.60375
1.71641 1.24963 1.629
2.67265 1.2463 1.69146
2.7514 1.24982 1.66902
2.8471 1.24881 1.64323
2.94913 1.24938 1.6165
3.00462 1.2468 1.60144
1.69058 1.34665 1.60353
1.7186 1.3492 1.62892
2.67888 1.34602 1.69362
2.74881 1.34775 1.67127
2.84861 1.34725 1.63996
2.94512 1.34651 1.61332
1.69141 1.45224 1.604
1.71931 1.44972 1.62834
2.68496 1.44577 1.69567
2.7498 1.45075 1.67458
2.84958 1.44957 1.64185
2.9426 1.44888 1.61296
1.6908 1.55231 1.60926
1.71985 1.55175 1.63459
2.26428 1.54838 1.60648
2.35477 1.54559 1.61556
2.45143 1.54549 1.62191
2.55812 1.54903 1.62362
2.65133 1.56037 1.66257
2.75066 1.55103 1.68013
2.84831 1.55018 1.64753
2.94698 1.55183 1.61548
1.68875 1.65295 1.61632
1.72014 1.65263 1.64243
2.12109 1.66623 1.60269
2.59828 1.68146 1.60437
2.6279 1.65277 1.64239
2.75129 1.65179 1.6824
2.84926 1.65204 1.64986
2.94809 1.65158 1.61658
3.00391 1.6263 1.60044
1.68962 1.75476 1.62059
1.71939 1.7495 1.64736
2.12018 1.7419 1.60586
2.59838 1.72479 1.60427
2.62903 1.75383 1.64159
2.75117 1.75075 1.68192
2.84889 1.74974 1.65006
2.94835 1.75164 1.6171
3.00391 1.77734 1.60009
1.68655 1.84648 1.62516
1.71958 1.84847 1.65307
2.12681 1.80462 1.61328
2.65219 1.85156 1.64085
2.75059 1.84799 1.683
2.8472 1.84836 1.65343
2.9506 1.8485 1.61962
3.0062 1.85639 1.60179
1.68618 1.95126 1.62546
1.72001 1.94918 1.65363
2.66045 1.91675 1.64471
2.7509 1.94879 1.68388
2.84792 1.95162 1.65283
2.94958 1.94844 1.62363
3.01978 1.95589 1.60382
1.68642 2.04792 1.62555
1.71945 2.05019 1.65123
2.69922 2.01953 1.69975
2.75147 2.04826 1.68615
2.84868 2.04982 1.65712
2.94998 2.04933 1.627
3.02091 2.05315 1.60613
1.68553 2.15184 1.62671
1.71907 2.1526 1.65413
2.77431 2.14453 1.68266
2.84537 2.15415 1.66388
2.95065 2.15121 1.63335
3.02208 2.14884 1.61185
1.68331 2.2534 1.62682
1.71954 2.25006 1.6539
2.66706 2.27084 1.68967
2.75253 2.24816 1.67002
2.8475 2.24838 1.63743
2.94515 2.23653 1.62799
3.0202 2.23422 1.61555
0.866474 2.39022 1.65834
0.949374 2.388 1.6581
1.04994 2.38917 1.65213
1.11161 2.3879 1.61901
1.26965 2.39434 1.65868
1.35049 2.39431 1.64667
1.44093 2.38747 1.64891
1.50983 2.34823 1.64341
1.6823 2.35348 1.62907
1.72754 2.36144 1.65849
1.82161 2.39981 1.68568
2.09141 2.39591 1.60482
2.13086 2.39657 1.61674
2.21484 2.39996 1.68359
2.36445 2.39958 1.68438
2.45486 2.39905 1.65986
2.55187 2.39825 1.6532
2.65204 2.36606 1.66572
2.7481 2.35901 1.65219
2.84706 2.3542 1.62105
2.91746 2.36268 1.6036
1.67973 2.40172 1.62075
1.75868 2.40054 1.63173
1.85324 2.40135 1.645
1.95001 2.40219 1.64841
2.0494 2.40234 1.65118
2.14799 2.40162 1.65109
2.24987 2.40265 1.65284
2.34154 2.4015 1.64545
2.42839 2.40067 1.62457
2.50586 2.40009 1.61719
2.67363 2.40152 1.65111
2.29297 1.08984 1.79961
2.34331 1.09801 1.78843
1.73944 1.15758 1.73831
2.36038 1.14831 1.78725
2.44567 1.15227 1.75781
2.5493 1.17356 1.72467
2.62052 1.18132 1.70612
1.74178 1.24897 1.73677
2.36663 1.24836 1.79009
2.44799 1.24903 1.76452
2.55197 1.25093 1.73061
2.62256 1.25349 1.7075
1.74351 1.34951 1.73899
2.37413 1.34704 1.79176
2.45065 1.34734 1.76859
2.55262 1.34833 1.73595
2.63011 1.34906 1.71018
1.74526 1.44831 1.74256
2.37594 1.44734 1.79218
2.44953 1.44862 1.77039
2.55044 1.44867 1.73937
2.63548 1.45163 1.71227
1.74574 1.55041 1.75198
2.37326 1.53006 1.7939
2.44631 1.52696 1.77326
2.55217 1.52788 1.74221
2.64792 1.54667 1.7126
1.74318 1.65264 1.75583
2.66379 1.6517 1.71036
1.74294 1.75117 1.75768
2.66208 1.74939 1.70975
1.73891 1.84796 1.7567
2.66548 1.83986 1.70862
1.74244 1.94983 1.75921
2.6825 1.95132 1.70503
2.70703 1.99609 1.70033
1.74414 2.05077 1.76373
2.69401 2.01606 1.70224
2.70703 2.04297 1.70012
1.74242 2.15164 1.76458
1.74153 2.25016 1.7668
2.36939 2.26876 1.78242
2.44913 2.25616 1.76445
2.55105 2.25478 1.73726
2.64488 2.24202 1.71529
2.7036 2.24219 1.70445
0.783197 2.3876 1.77463
0.848011 2.3863 1.74981
0.955106 2.38555 1.74572
1.03142 2.38626 1.74832
1.19922 2.39265 1.78516
1.25238 2.39238 1.75062
1.34766 2.39234 1.75
1.45319 2.38806 1.75221
1.50391 2.38573 1.76709
1.74709 2.36739 1.76229
1.84494 2.39899 1.75271
1.94308 2.39932 1.77221
2.05423 2.39938 1.7747
2.15614 2.3991 1.76244
2.22902 2.39872 1.7577
2.35798 2.36379 1.77183
2.44725 2.35966 1.75074
2.54778 2.35306 1.72528
2.61658 2.35015 1.70608
1.71641 2.40087 1.74298
1.88021 2.40029 1.71745
1.95422 2.4007 1.73192
2.04812 2.40072 1.73091
2.14353 2.40055 1.72116
2.27265 2.40172 1.73722
2.309 2.4018 1.74831
1.77853 1.08302 1.85962
1.98748 1.06134 1.8952
2.04698 1.07663 1.88093
2.1504 1.08292 1.84918
2.24779 1.09075 1.82243
2.31147 1.09485 1.80529
1.7776 1.15286 1.85476
1.99048 1.18753 1.89664
2.05154 1.15106 1.8808
2.15204 1.14963 1.84993
2.25116 1.15175 1.82046
2.31151 1.14941 1.80293
1.78131 1.2483 1.85493
1.98962 1.2445 1.89631
2.05018 1.24963 1.88034
2.15234 1.24965 1.85259
2.24934 1.25039 1.82464
2.31592 1.25325 1.80492
1.78106 1.34843 1.85561
1.99087 1.34082 1.89602
2.05142 1.34836 1.88012
2.15222 1.34907 1.85371
2.25041 1.34654 1.8272
2.32429 1.34754 1.80629
1.77905 1.44763 1.85694
1.99262 1.43403 1.89829
2.04899 1.44938 1.88276
2.15122 1.44756 1.85421
2.25039 1.45009 1.82729
2.32671 1.44946 1.80621
0.699219 1.55078 1.89464
0.709388 1.56593 1.88876
1.77624 1.55157 1.86098
1.99609 1.53906 1.89926
2.05369 1.54847 1.88448
2.15344 1.55206 1.85572
2.24844 1.53426 1.82884
2.3271 1.53097 1.80637
0.699219 1.69141 1.89463
0.710588 1.65277 1.88938
1.77566 1.65107 1.86324
2.05921 1.65122 1.88651
2.15161 1.65123 1.85987
0.699219 1.76172 1.89464
0.70995 1.74599 1.88873
1.77136 1.75079 1.8595
1.80093 1.7737 1.89093
2.06572 1.74868 1.88836
2.14764 1.75132 1.86474
0.71312 1.84876 1.88824
1.76689 1.84746 1.85745
1.80136 1.84775 1.88852
2.06629 1.84834 1.89
2.15107 1.84886 1.86793
0.699336 1.98047 1.89461
0.711166 1.95151 1.88783
1.76573 1.94989 1.86075
1.80173 1.94922 1.88853
2.0709 1.94996 1.88969
2.14978 1.94551 1.8666
2.21484 1.99609 1.85394
0.710648 2.0484 1.88954
1.76996 2.05034 1.86241
1.80162 2.04397 1.88996
2.07487 2.05034 1.89033
2.15333 2.05041 1.86882
2.21688 2.05975 1.85602
0.699219 2.18359 1.89463
0.710971 2.14776 1.88806
1.76942 2.15195 1.85833
1.80134 2.15202 1.89321
2.07753 2.14988 1.89188
2.15216 2.15299 1.86988
2.23592 2.16107 1.85293
0.699219 2.2461 1.89499
0.707284 2.25664 1.88796
1.76934 2.25054 1.86048
1.80078 2.22422 1.89725
1.98626 2.27569 1.89541
2.0594 2.25913 1.88157
2.15087 2.25076 1.85784
2.25133 2.24964 1.83346
2.34687 2.24751 1.8093
0.699219 2.36719 1.8949
0.744339 2.37207 1.86213
0.847656 2.38225 1.84766
0.951627 2.38407 1.84637
1.01301 2.3828 1.82256
1.18401 2.39041 1.85826
1.25 2.38981 1.84766
1.34851 2.39061 1.84845
1.44914 2.38366 1.84685
1.76616 2.36322 1.85507
1.84766 2.39728 1.84766
1.95994 2.38421 1.86085
2.04992 2.3657 1.86234
2.15108 2.36006 1.83895
2.25045 2.3551 1.81635
2.31261 2.34929 1.80237
2.28516 2.40051 1.80078
1.78949 1.0662 1.95541
1.84795 1.06245 1.94258
1.9416 1.0689 1.91629
1.7897 1.15369 1.94091
1.84646 1.15116 1.93863
1.94823 1.15014 1.91289
2.00391 1.1237 1.90117
1.78991 1.25523 1.94552
1.8481 1.2489 1.93136
1.93861 1.25083 1.90881
1.78981 1.34734 1.94314
1.84695 1.34576 1.93333
1.93891 1.34858 1.91014
1.79105 1.45309 1.9329
1.84811 1.45072 1.93538
1.94533 1.45113 1.91111
0.727712 1.56061 1.94612
1.7936 1.55323 1.92988
1.84736 1.54999 1.94019
1.94864 1.55106 1.91357
2.00391 1.58594 1.90084
0.727691 1.65161 1.94798
1.79502 1.65619 1.93163
1.84717 1.65108 1.94509
1.95039 1.65152 1.91739
2.00815 1.66017 1.90199
0.727662 1.75133 1.94458
1.79566 1.74738 1.94145
1.83965 1.75228 1.94527
1.94986 1.74978 1.92196
2.01451 1.753 1.90384
0.731164 1.84743 1.94476
1.79701 1.84137 1.94902
1.83589 1.84879 1.94447
1.94943 1.84752 1.92391
2.01728 1.85007 1.9045
0.731542 1.94901 1.94927
1.79864 1.92649 1.94709
1.8343 1.94943 1.94704
1.94941 1.94996 1.92651
2.01905 1.94835 1.90606
0.730163 2.04981 1.94714
1.83282 2.05123 1.94958
1.94979 2.05233 1.92848
2.02412 2.04977 1.90682
0.731893 2.15256 1.9489
1.79928 2.19922 1.97266
1.8334 2.15262 1.95078
1.94925 2.15312 1.93183
2.02811 2.1544 1.90831
0.724538 2.24857 1.94755
1.79959 2.25 1.92969
1.83542 2.24843 1.94246
1.94626 2.24743 1.92267
2.02681 2.23175 1.9088
0.740446 2.35461 1.9485
0.845661 2.37994 1.95619
0.936249 2.38032 1.94498
1.16718 2.38735 1.95936
1.24654 2.38728 1.95541
1.35005 2.38698 1.95149
1.44506 2.37889 1.94648
1.78431 2.37188 1.90967
1.84133 2.35407 1.92957
1.93571 2.35139 1.90985
0.755756 1.55697 2.05032
0.757202 1.65192 2.05208
0.758077 1.74946 2.04954
0.759943 1.8464 2.05159
0.761987 1.94991 2.05205
0.760795 2.05096 2.04824
0.760664 2.1518 2.05124
0.757912 2.25092 2.04992
0.760225 2.34734 2.04848
0.85584 2.37798 2.05014
0.91309 2.37654 2.03416
1.09023 2.38558 2.07276
1.15018 2.38554 2.04605
1.25201 2.38591 2.0444
1.34541 2.38283 2.05149
1.4369 2.37346 2.05133
1.34475 1.13861 2.19841
1.35535 1.27961 2.19799
1.40229 1.29297 2.19905
1.36284 1.35262 2.19329
1.4045 1.37021 2.19244
1.36289 1.44974 2.18627
1.41051 1.44794 2.17934
0.779008 1.55106 2.1526
1.36238 1.55109 2.18286
1.40976 1.55652 2.16874
0.781026 1.65137 2.15043
1.36157 1.65194 2.18388
1.41056 1.65309 2.16343
0.782664 1.75205 2.15211
1.36473 1.74864 2.18386
1.41206 1.74728 2.1644
0.784995 1.84936 2.15396
1.36299 1.84825 2.18263
1.41375 1.85049 2.16205
0.785051 1.94915 2.15151
1.36386 1.94913 2.18378
1.41715 1.95174 2.1626
0.786368 2.05052 2.15024
1.36507 2.04797 2.18426
1.41924 2.05157 2.16424
0.785797 2.15345 2.15163
1.36545 2.15198 2.18554
1.4203 2.15146 2.1654
0.783124 2.24885 2.15281
1.37357 2.24672 2.18998
1.42543 2.24807 2.17192
0.781412 2.3394 2.14821
0.839145 2.37683 2.1456
1.07219 2.38241 2.15946
1.15234 2.38265 2.15234
1.25 2.38396 2.15234
1.35713 2.36224 2.16331
1.4299 2.35082 2.15185
1.05243 0.891482 2.2794
1.13939 0.893001 2.26656
1.22788 0.894857 2.25023
0.996264 0.976974 2.28938
1.0502 0.950227 2.27766
1.14992 0.944894 2.2586
1.25066 0.945992 2.23855
1.31414 0.946233 2.22674
0.990789 1.05404 2.29111
1.05047 1.05097 2.2793
1.15264 1.04888 2.25604
1.24878 1.04991 2.23709
1.31028 1.05201 2.22443
0.992339 1.15287 2.29142
1.05412 1.15062 2.28582
1.1542 1.15125 2.26017
1.25033 1.15516 2.253
1.34208 1.16742 2.24086
1.40234 1.19922 2.24302
0.99227 1.24994 2.2873
1.04953 1.24943 2.28454
1.1511 1.24871 2.25965
1.25217 1.25027 2.23432
1.35482 1.24302 2.21824
1.4056 1.25704 2.22168
0.992425 1.34776 2.29121
1.05057 1.3498 2.28192
1.15287 1.34829 2.2568
1.24984 1.34616 2.23335
1.33079 1.33689 2.21263
1.40609 1.32272 2.20929
0.99302 1.44325 2.2942
1.05134 1.45043 2.28335
1.14928 1.44877 2.25913
1.24945 1.44965 2.23351
1.31067 1.45067 2.21195
0.788389 1.53888 2.23069
0.80105 1.55822 2.24237
0.992955 1.54248 2.29598
1.0512 1.54887 2.28406
1.14967 1.55049 2.25975
1.25044 1.55075 2.23524
1.3112 1.54999 2.21097
0.796395 1.65263 2.23114
0.800876 1.6533 2.24405
0.992188 1.60547 2.29822
1.05566 1.65125 2.28533
1.15156 1.65155 2.2615
1.25067 1.65367 2.23822
1.31186 1.65273 2.21207
0.796985 1.74731 2.21946
0.801726 1.75253 2.24972
0.988281 1.78516 2.29838
1.05685 1.75132 2.28629
1.15451 1.74909 2.26341
1.25312 1.74989 2.23954
1.31377 1.75074 2.21023
0.798199 1.8418 2.21549
0.802299 1.84404 2.24036
0.992188 1.82422 2.29844
1.05502 1.84809 2.2853
1.15126 1.8476 2.262
1.25271 1.85023 2.23874
1.31213 1.84506 2.20915
0.798101 1.95391 2.21016
0.803317 1.95069 2.23888
1.06341 1.94893 2.28686
1.15087 1.94929 2.26502
1.25064 1.95076 2.2422
1.31119 1.95182 2.21288
0.79842 2.04093 2.21926
0.803865 2.05856 2.23771
1.06524 2.05073 2.28917
1.1507 2.05231 2.26891
1.25128 2.0518 2.24579
1.31339 2.05318 2.21307
0.799234 2.16468 2.23211
0.804483 2.15242 2.24155
1.06904 2.14959 2.28788
1.15093 2.1533 2.26938
1.25313 2.15212 2.2476
1.31492 2.1519 2.21277
0.79704 2.26139 2.23018
0.80483 2.25033 2.24965
0.988281 2.26953 2.29697
1.08 2.24701 2.29239
1.15368 2.2483 2.27371
1.25232 2.24987 2.25053
1.32253 2.25182 2.21312
0.795621 2.3345 2.21898
0.809842 2.34703 2.24674
0.996094 2.37722 2.29637
1.06207 2.36936 2.26672
1.15276 2.35451 2.26496
1.25149 2.35189 2.24846
1.32348 2.34122 2.21534
0.666675 0.863859 2.38502
0.727872 0.871682 2.36247
1.00413 0.879104 2.30095
0.684595 0.939416 2.38916
0.728892 0.947901 2.36805
0.992933 0.94607 2.30097
0.68467 1.07457 2.39336
0.731738 1.05252 2.37293
0.98522 1.02793 2.30126
0.674623 1.15936 2.39004
0.726163 1.14938 2.37233
0.987466 1.12918 2.3624
1.04366 1.14026 2.34864
1.14753 1.15009 2.323
1.22922 1.15467 2.30847
1.30078 1.14485 2.30086
0.667368 1.24754 2.38097
0.73235 1.25108 2.36178
0.98993 1.21518 2.34217
1.02349 1.22747 2.3484
0.66694 1.34561 2.37393
0.732567 1.34606 2.35779
0.672651 1.4512 2.36898
0.734575 1.45126 2.35662
0.98987 1.48632 2.30086
0.686601 1.50344 2.36291
0.730009 1.50368 2.35175
0.990581 1.5607 2.30312
1.00354 1.58098 2.30103
0.991967 1.65265 2.30438
1.00674 1.66694 2.30171
0.989939 1.74668 2.30745
1.00779 1.74303 2.30142
0.990159 1.84449 2.30485
1.0055 1.85287 2.301
0.992204 1.95258 2.30814
1.01264 1.95338 2.30317
0.99038 2.05555 2.31391
1.01591 2.04797 2.30349
0.991599 2.14392 2.31112
1.01936 2.16012 2.30531
0.792597 2.2539 2.30078
0.991517 2.25028 2.31381
1.03322 2.25349 2.307
0.989501 2.34486 2.31979
1.03506 2.34306 2.30903
0.631741 0.882177 2.41169
0.59453 0.951776 2.47618
0.637969 0.959623 2.44311
0.712876 0.983527 2.40763
0.593843 1.04892 2.48185
0.652905 1.05168 2.45912
0.710001 1.04934 2.41121
0.594622 1.14015 2.47438
0.655885 1.14692 2.42994
0.708831 1.1496 2.41162
0.985092 1.12085 2.40449
0.653975 1.23528 2.4208
0.710938 1.21195 2.4137
0.629401 1.31618 2.40262
0.582518 0.975321 2.51776
0.608287 0.980325 2.50866
0.586048 1.0109 2.52007
0.626414 1.02114 2.51087
